-10002 -10050 -9998
-10002 -10052 -9998
-10000 -10050 -10004
-10000 -10052 -10004
-9997 -10050 -9996
-9997 -10052 -9996
-10006 -10050 -10001
-10006 -10052 -10001
-9994 -10050 -10004
-9994 -10052 -10004
-10002 -10049 -9993
-10002 -10051 -9993
-10004 -10049 -10007
-10004 -10051 -10007
-9992 -10049 -9997
-9992 -10051 -9997
-10008 -10049 -9996
-10009 -10051 -9996
-9996 -10049 -10009
-9996 -10051 -10009
-9997 -10049 -9990
-9997 -10051 -9990
-10009 -10049 -10005
-10010 -10051 -10006
-9989 -10049 -10002
-9989 -10051 -10002
-10007 -10049 -9991
-10007 -10051 -9990
-10002 -10049 -10012
-10002 -10050 -10012
-9991 -10048 -9992
-9990 -10050 -9992
-10013 -10048 -9999
-10013 -10050 -9999
-9991 -10048 -10009
-9990 -10050 -10010
-10001 -10048 -9987
-10001 -10050 -9986
-10009 -10048 -10011
-10009 -10050 -10011
-9986 -10048 -9998
-9985 -10050 -9998
-10012 -10048 -9992
-10012 -10050 -9991
-9997 -10048 -10014
-9997 -10050 -10015
-9992 -10048 -9987
-9992 -10050 -9986
-10015 -10048 -10005
-10015 -10049 -10005
-9986 -10047 -10007
-9985 -10049 -10007
-10006 -10047 -9985
-10006 -10049 -9985
-10006 -10047 -10015
-10006 -10049 -10016
-9985 -10047 -9992
-9985 -10049 -9992
-10016 -10047 -9996
-10017 -10049 -9996
-9991 -10047 -10014
-9990 -10049 -10015
-9997 -10047 -9983
-9997 -10049 -9982
-10014 -10047 -10011
-10015 -10049 -10011
-9982 -10047 -10001
-9981 -10049 -10002
-10012 -10047 -9987
-10013 -10048 -9986
-10000 -10046 -10019
-10000 -10048 -10019
-9987 -10046 -9986
-9987 -10048 -9986
-10019 -10046 -10002
-10020 -10048 -10002
-9985 -10046 -10012
-9984 -10048 -10012
-10003 -10046 -9981
-10004 -10048 -9980
-10010 -10046 -10017
-10011 -10048 -10017
-9981 -10046 -9995
-9980 -10048 -9995
-10018 -10046 -9991
-10019 -10048 -9990
-9993 -10046 -10019
-9993 -10047 -10020
-9992 -10046 -9981
-9992 -10047 -9980
-10019 -10045 -10009
-10020 -10047 -10009
-9980 -10045 -10006
-9979 -10047 -10006
-10011 -10045 -9982
-10011 -10047 -9981
-10005 -10045 -10021
-10005 -10047 -10022
-9982 -10045 -9987
-9982 -10047 -9987
-10022 -10045 -9997
-10023 -10047 -9997
-9986 -10045 -10017
-9985 -10047 -10018
-9999 -10045 -9978
-9999 -10047 -9977
-10016 -10045 -10016
-10016 -10046 -10017
-9977 -10045 -9999
-9976 -10046 -9999
-10018 -10044 -9985
-10018 -10046 -9985
-9997 -10044 -10023
-9997 -10046 -10024
-9987 -10044 -9981
-9986 -10046 -9980
-10023 -10044 -10005
-10024 -10046 -10005
-9979 -10044 -10012
-9979 -10046 -10012
-10007 -10044 -9977
-10008 -10046 -9976
-10010 -10044 -10022
-10010 -10046 -10023
-9978 -10044 -9991
-9977 -10046 -9990
-10023 -10044 -9992
-10024 -10045 -9992
-9988 -10044 -10022
-9988 -10045 -10023
-9994 -10043 -9976
-9994 -10045 -9975
-10021 -10043 -10014
-10022 -10045 -10014
-9975 -10043 -10004
-9974 -10045 -10004
-10016 -10043 -9980
-10016 -10045 -9979
-10002 -10043 -10025
-10002 -10045 -10026
-9981 -10043 -9983
-9981 -10045 -9982
-10026 -10043 -10000
-10027 -10045 -10000
-9981 -10043 -10017
-9980 -10044 -10018
-10003 -10043 -9974
-10003 -10044 -9973
-10016 -10043 -10021
-10016 -10044 -10022
-9974 -10042 -9995
-9973 -10044 -9995
-10023 -10042 -9986
-10023 -10044 -9985
-9993 -10042 -10026
-9993 -10044 -10027
-9988 -10042 -9976
-9987 -10044 -9975
-10025 -10042 -10010
-10026 -10044 -10010
-9975 -10042 -10010
-9974 -10044 -10011
-10012 -10042 -9975
-10012 -10044 -9974
-10008 -10042 -10026
-10008 -10043 -10027
-9976 -10042 -9986
-9975 -10043 -9985
-10027 -10042 -9994
-10028 -10043 -9994
-9984 -10041 -10023
-9983 -10043 -10024
-9997 -10041 -9972
-9997 -10043 -9971
-10021 -10041 -10018
-10022 -10043 -10019
-9972 -10041 -10001
-9970 -10043 -10001
-10020 -10041 -9980
-10021 -10043 -9979
-9998 -10041 -10029
-9998 -10043 -10030
-9982 -10041 -9978
-9981 -10042 -9977
-10029 -10041 -10004
-10030 -10042 -10004
-9976 -10041 -10016
-9975 -10042 -10017
-10007 -10041 -9972
-10007 -10042 -9970
-10014 -10040 -10026
-10015 -10042 -10027
-9972 -10040 -9991
-9971 -10042 -9990
-10027 -10040 -9988
-10028 -10042 -9987
-9988 -10040 -10027
-9988 -10042 -10028
-9990 -10040 -9972
-9990 -10042 -9971
-10026 -10040 -10014
-10028 -10042 -10015
-9971 -10040 -10007
-9970 -10041 -10008
-10017 -10040 -9975
-10017 -10041 -9974
-10005 -10040 -10030
-10005 -10041 -10031
-9976 -10040 -9981
-9975 -10041 -9980
-10031 -10039 -9998
-10032 -10041 -9998
-9979 -10039 -10022
-9978 -10041 -10023
-10000 -10039 -9969
-10000 -10041 -9968
-10021 -10039 -10023
-10021 -10041 -10024
-9969 -10039 -9997
-9968 -10041 -9997
-10025 -10039 -9981
-10026 -10041 -9981
-9994 -10039 -10031
-9994 -10040 -10032
-9983 -10039 -9973
-9983 -10040 -9972
-10031 -10039 -10009
-10032 -10040 -10009
-9972 -10039 -10014
-9970 -10040 -10015
-10011 -10038 -9970
-10012 -10040 -9969
-10012 -10038 -10030
-10012 -10040 -10031
-9971 -10038 -9986
-9970 -10040 -9985
-10031 -10038 -9991
-10032 -10040 -9990
-9983 -10038 -10028
-9983 -10040 -10029
-9993 -10038 -9968
-9993 -10039 -9967
-10026 -10038 -10019
-10028 -10039 -10020
-9967 -10038 -10004
-9966 -10039 -10004
-10022 -10038 -9975
-10022 -10039 -9974
-10001 -10038 -10033
-10001 -10039 -10034
-9977 -10037 -9976
-9976 -10039 -9975
-10033 -10037 -10002
-10035 -10039 -10002
-9974 -10037 -10021
-9973 -10039 -10022
-10005 -10037 -9967
-10005 -10039 -9966
-10019 -10037 -10028
-10020 -10039 -10029
-9967 -10037 -9992
-9966 -10038 -9992
-10030 -10037 -9984
-10031 -10038 -9983
-9989 -10037 -10032
-9989 -10038 -10033
-9986 -10037 -9969
-9986 -10038 -9968
-10031 -10037 -10014
-10033 -10038 -10014
-9968 -10036 -10011
-9966 -10038 -10012
-10016 -10036 -9970
-10017 -10038 -9969
-10008 -10036 -10033
-10009 -10038 -10035
-9971 -10036 -9981
-9970 -10038 -9980
-10034 -10036 -9995
-10036 -10037 -9994
-9978 -10036 -10027
-9977 -10037 -10028
-9998 -10036 -9965
-9998 -10037 -9964
-10025 -10036 -10024
-10026 -10037 -10025
-9965 -10036 -9999
-9964 -10037 -9999
-10026 -10036 -9977
-10027 -10037 -9976
-9996 -10035 -10035
-9996 -10037 -10036
-9979 -10035 -9972
-9978 -10037 -9970
-10035 -10035 -10007
-10036 -10037 -10007
-9970 -10035 -10018
-9968 -10037 -10019
-10010 -10035 -9966
-10010 -10036 -9964
-10016 -10035 -10032
-10016 -10036 -10033
-9967 -10035 -9987
-9965 -10036 -9987
-10033 -10035 -9987
-10035 -10036 -9986
-9984 -10035 -10032
-9983 -10036 -10034
-9990 -10035 -9965
-9989 -10036 -9964
-10031 -10034 -10019
-10032 -10036 -10020
-9964 -10034 -10007
-9963 -10036 -10007
-10022 -10034 -9971
-10022 -10036 -9969
-10004 -10034 -10036
-10004 -10036 -10038
-9972 -10034 -9976
-9971 -10035 -9975
-10037 -10034 -9999
-10038 -10035 -9999
-9973 -10034 -10025
-9972 -10035 -10026
-10002 -10034 -9963
-10003 -10035 -9962
-10023 -10034 -10029
-10024 -10035 -10030
-9963 -10034 -9994
-9962 -10035 -9994
-10031 -10033 -9979
-10032 -10035 -9979
-9991 -10033 -10036
-9991 -10035 -10038
-9982 -10033 -9967
-9981 -10035 -9966
-10035 -10033 -10012
-10037 -10034 -10013
-9966 -10033 -10015
-9964 -10034 -10016
-10015 -10033 -9966
-10016 -10034 -9964
-10012 -10033 -10036
-10013 -10034 -10037
-9967 -10033 -9982
-9966 -10034 -9981
-10037 -10033 -9991
-10038 -10034 -9991
-9979 -10033 -10032
-9978 -10034 -10033
-9994 -10032 -9962
-9994 -10034 -9961
-10030 -10032 -10024
-10031 -10034 -10025
-9962 -10032 -10002
-9960 -10034 -10003
-10027 -10032 -9972
-10028 -10033 -9971
-9999 -10032 -10038
-9999 -10033 -10040
-9975 -10032 -9971
-9974 -10033 -9970
-10038 -10032 -10004
-10040 -10033 -10004
-9969 -10032 -10023
-9968 -10033 -10024
-10008 -10032 -9962
-10008 -10033 -9961
-10020 -10032 -10033
-10021 -10033 -10035
-9963 -10031 -9989
-9961 -10033 -9989
-10035 -10031 -9983
-10036 -10033 -9982
-9986 -10031 -10036
-9985 -10033 -10038
-9986 -10031 -9963
-9985 -10032 -9962
-10035 -10031 -10017
-10036 -10032 -10018
-9962 -10031 -10011
-9961 -10032 -10011
-10021 -10031 -9966
-10021 -10032 -9965
-10008 -10031 -10039
-10008 -10032 -10040
-9968 -10031 -9976
-9967 -10032 -9976
-10039 -10031 -9996
-10041 -10032 -9996
-9974 -10030 -10030
-9973 -10032 -10031
-9999 -10030 -9960
-9999 -10032 -9959
-10027 -10030 -10029
-10028 -10031 -10030
-9960 -10030 -9997
-9959 -10031 -9997
-10031 -10030 -9975
-10033 -10031 -9974
-9994 -10030 -10040
-9993 -10031 -10041
-9978 -10030 -9967
-9977 -10031 -9965
-10039 -10030 -10010
-10041 -10031 -10010
-9965 -10030 -10019
-9963 -10031 -10020
-10013 -10030 -9962
-10014 -10031 -9960
-10016 -10029 -10037
-10017 -10031 -10039
-9963 -10029 -9983
-9962 -10031 -9983
-10038 -10029 -9987
-10040 -10030 -9987
-9980 -10029 -10035
-9979 -10030 -10037
-9991 -10029 -9960
-9990 -10030 -9959
-10034 -10029 -10023
-10035 -10030 -10024
-9960 -10029 -10006
-9958 -10030 -10006
-10026 -10029 -9968
-10027 -10030 -9967
-10002 -10029 -10041
-10002 -10030 -10043
-9971 -10029 -9971
-9969 -10030 -9970
-10041 -10028 -10001
-10043 -10030 -10001
-9969 -10028 -10027
-9968 -10029 -10028
-10005 -10028 -9959
-10005 -10029 -9957
-10024 -10028 -10034
-10025 -10029 -10035
-9959 -10028 -9992
-9958 -10029 -9991
-10036 -10028 -9979
-10037 -10029 -9978
-9988 -10028 -10040
-9988 -10029 -10041
-9982 -10028 -9963
-9981 -10029 -9961
-10039 -10028 -10015
-10040 -10029 -10016
-9961 -10028 -10015
-9959 -10029 -10015
-10019 -10027 -9963
-10020 -10029 -9961
-10011 -10027 -10040
-10012 -10028 -10042
-9964 -10027 -9978
-9963 -10028 -9977
-10041 -10027 -9992
-10043 -10028 -9992
-9975 -10027 -10034
-9974 -10028 -10035
-9996 -10027 -9958
-9996 -10028 -9956
-10031 -10027 -10028
-10033 -10028 -10029
-9958 -10027 -10001
-9956 -10028 -10001
-10031 -10027 -9971
-10032 -10028 -9970
-9997 -10027 -10042
-9997 -10028 -10044
-9974 -10026 -9967
-9973 -10028 -9965
-10042 -10026 -10007
-10044 -10027 -10007
-9964 -10026 -10023
-9963 -10027 -10024
-10011 -10026 -9959
-10011 -10027 -9957
-10020 -10026 -10038
-10021 -10027 -10039
-9960 -10026 -9986
-9958 -10027 -9985
-10039 -10026 -9983
-10041 -10027 -9983
-9982 -10026 -10039
-9982 -10027 -10041
-9987 -10026 -9959
-9986 -10027 -9958
-10037 -10026 -10021
-10039 -10027 -10022
-9958 -10025 -10010
-9956 -10026 -10010
-10024 -10025 -9964
-10025 -10026 -9963
-10006 -10025 -10043
-10006 -10026 -10044
-9967 -10025 -9973
-9965 -10026 -9971
-10043 -10025 -9998
-10045 -10026 -9998
-9970 -10025 -10031
-9968 -10026 -10032
-10001 -10025 -9957
-10002 -10026 -9955
-10028 -10025 -10033
-10029 -10026 -10034
-9957 -10025 -9995
-9955 -10026 -9995
-10035 -10025 -9975
-10037 -10026 -9974
-9991 -10024 -10043
-9991 -10025 -10044
-9978 -10024 -9962
-9977 -10025 -9961
-10042 -10024 -10013
-10043 -10025 -10013
-9960 -10024 -10019
-9959 -10025 -10020
-10016 -10024 -9959
-10017 -10025 -9958
-10015 -10024 -10041
-10016 -10025 -10043
-9961 -10024 -9980
-9959 -10025 -9979
-10042 -10024 -9988
-10044 -10025 -9988
-9977 -10024 -10037
-9976 -10025 -10039
-9992 -10024 -9957
-9992 -10024 -9955
-10035 -10023 -10027
-10037 -10024 -10028
-9956 -10023 -10004
-9954 -10024 -10004
-10030 -10023 -9967
-10031 -10024 -9966
-10000 -10023 -10044
-10000 -10024 -10046
-9970 -10023 -9967
-9969 -10024 -9966
-10044 -10023 -10004
-10046 -10024 -10004
-9965 -10023 -10027
-9963 -10024 -10028
-10007 -10023 -9956
-10008 -10024 -9954
-10024 -10023 -10037
-10025 -10024 -10039
-9957 -10023 -9989
-9955 -10023 -9988
-10039 -10022 -9979
-10041 -10023 -9978
-9985 -10022 -10042
-9984 -10023 -10044
-9983 -10022 -9959
-9982 -10023 -9957
-10041 -10022 -10019
-10042 -10023 -10019
-9957 -10022 -10014
-9956 -10023 -10014
-10022 -10022 -9961
-10023 -10023 -9959
-10010 -10022 -10044
-10010 -10023 -10046
-9963 -10022 -9974
-9962 -10023 -9973
-10045 -10022 -9994
-10046 -10023 -9994
-9971 -10022 -10035
-9970 -10022 -10036
-9998 -10021 -9955
-9998 -10022 -9953
-10032 -10021 -10032
-10033 -10022 -10033
-9955 -10021 -9998
-9953 -10022 -9998
-10035 -10021 -9971
-10036 -10022 -9970
-9994 -10021 -10045
-9994 -10022 -10047
-9974 -10021 -9963
-9973 -10022 -9961
-10044 -10021 -10010
-10046 -10022 -10010
-9961 -10021 -10023
-9959 -10022 -10024
-10014 -10021 -9957
-10014 -10021 -9955
-10019 -10021 -10041
-10020 -10021 -10043
-9958 -10020 -9983
-9956 -10021 -9982
-10043 -10020 -9984
-10045 -10021 -9984
-9979 -10020 -10041
-9978 -10021 -10042
-9988 -10020 -9956
-9988 -10021 -9954
-10039 -10020 -10024
-10040 -10021 -10025
-9955 -10020 -10008
-9953 -10021 -10008
-10028 -10020 -9964
-10029 -10021 -9962
-10004 -10020 -10046
-10004 -10021 -10048
-9966 -10020 -9969
-9965 -10020 -9968
-10046 -10020 -10000
-10048 -10020 -10000
-9966 -10019 -10031
-9965 -10020 -10032
-10004 -10019 -9954
-10004 -10020 -9952
-10028 -10019 -10037
-10029 -10020 -10038
-9955 -10019 -9992
-9953 -10020 -9992
-10039 -10019 -9975
-10041 -10020 -9974
-9988 -10019 -10045
-9988 -10020 -10046
-9979 -10019 -9959
-9978 -10020 -9957
-10044 -10019 -10016
-10045 -10020 -10016
-9957 -10019 -10018
-9955 -10019 -10019
-10020 -10019 -9958
-10020 -10019 -9956
-10014 -10018 -10044
-10015 -10019 -10046
-9960 -10018 -9977
-9958 -10019 -9976
-10045 -10018 -9990
-10047 -10019 -9989
-9973 -10018 -10038
-9972 -10019 -10040
-9994 -10018 -9954
-9994 -10019 -9952
-10036 -10018 -10030
-10037 -10019 -10031
-9953 -10018 -10002
-9951 -10019 -10002
-10033 -10018 -9967
-10034 -10018 -9966
-9998 -10018 -10047
-9998 -10018 -10049
-9970 -10018 -9964
-9969 -10018 -9963
-10046 -10017 -10006
-10048 -10018 -10006
-9962 -10017 -10027
-9960 -10018 -10028
-10010 -10017 -9954
-10011 -10018 -9952
-10023 -10017 -10041
-10024 -10018 -10042
-9955 -10017 -9986
-9953 -10018 -9985
-10043 -10017 -9980
-10044 -10018 -9979
-9982 -10017 -10043
-9981 -10018 -10045
-9984 -10017 -9956
-9983 -10017 -9954
-10042 -10017 -10022
-10043 -10017 -10023
-9954 -10017 -10012
-9953 -10017 -10013
-10025 -10016 -9960
-10026 -10017 -9959
-10008 -10016 -10047
-10008 -10017 -10048
-9963 -10016 -9971
-9961 -10017 -9970
-10047 -10016 -9996
-10049 -10017 -9996
-9968 -10016 -10035
-9967 -10017 -10036
-10000 -10016 -9953
-10000 -10017 -9951
-10032 -10016 -10035
-10033 -10016 -10036
-9953 -10016 -9996
-9951 -10016 -9996
-10038 -10016 -9971
-10039 -10016 -9970
-9992 -10016 -10047
-9991 -10016 -10049
-9975 -10015 -9960
-9974 -10016 -9958
-10046 -10015 -10012
-10048 -10016 -10013
-9958 -10015 -10022
-9956 -10016 -10023
-10016 -10015 -9955
-10017 -10016 -9953
-10018 -10015 -10044
-10019 -10016 -10046
-9957 -10015 -9980
-9955 -10016 -9979
-10046 -10015 -9986
-10047 -10015 -9985
-9976 -10015 -10041
-9975 -10015 -10043
-9990 -10015 -9953
-9989 -10015 -9951
-10039 -10015 -10028
-10041 -10015 -10029
-9953 -10014 -10006
-9951 -10015 -10006
-10031 -10014 -9963
-10032 -10015 -9962
-10002 -10014 -10048
-10002 -10015 -10050
-9966 -10014 -9966
-9965 -10015 -9965
-10048 -10014 -10002
-10050 -10015 -10002
-9963 -10014 -10031
-9962 -10015 -10032
-10007 -10014 -9952
-10007 -10014 -9950
-10027 -10014 -10040
-10028 -10014 -10041
-9953 -10014 -9989
-9951 -10014 -9989
-10042 -10014 -9976
-10043 -10014 -9975
-9985 -10013 -10046
-9985 -10014 -10048
-9980 -10013 -9956
-9979 -10014 -9954
-10044 -10013 -10019
-10046 -10014 -10019
-9955 -10013 -10016
-9953 -10014 -10017
-10023 -10013 -9957
-10023 -10014 -9956
-10012 -10013 -10047
-10013 -10013 -10049
-9959 -10013 -9974
-9958 -10013 -9973
-10048 -10013 -9992
-10050 -10013 -9992
-9970 -10013 -10038
-9969 -10013 -10040
-9996 -10013 -9952
-9996 -10013 -9950
-10035 -10012 -10033
-10037 -10013 -10034
-9952 -10012 -10000
-9950 -10013 -10000
-10036 -10012 -9968
-10037 -10013 -9966
-9995 -10012 -10048
-9995 -10013 -10050
-9971 -10012 -9961
-9970 -10013 -9960
-10048 -10012 -10009
-10050 -10012 -10009
-9959 -10012 -10026
-9957 -10012 -10027
-10013 -10012 -9953
-10013 -10012 -9951
-10022 -10012 -10043
-10023 -10012 -10045
-9954 -10012 -9983
-9953 -10012 -9982
-10045 -10011 -9982
-10047 -10012 -9981
-9979 -10011 -10044
-9978 -10012 -10046
-9986 -10011 -9953
-9985 -10012 -9952
-10042 -10011 -10025
-10044 -10012 -10026
-9952 -10011 -10010
-9950 -10011 -10011
-10028 -10011 -9960
-10029 -10011 -9959
-10006 -10011 -10048
-10006 -10011 -10050
-9963 -10011 -9968
-9961 -10011 -9967
-10049 -10011 -9998
-10051 -10011 -9998
-9965 -10011 -10034
-9964 -10011 -10036
-10003 -10010 -9951
-10003 -10011 -9949
-10031 -10010 -10038
-10032 -10011 -10039
-9952 -10010 -9993
-9950 -10011 -9993
-10040 -10010 -9972
-10042 -10011 -9971
-9989 -10010 -10048
-9988 -10010 -10050
-9976 -10010 -9957
-9975 -10010 -9956
-10047 -10010 -10015
-10048 -10010 -10016
-9955 -10010 -10020
-9954 -10010 -10021
-10019 -10010 -9955
-10020 -10010 -9953
-10016 -10010 -10046
-10017 -10010 -10048
-9957 -10009 -9977
-9955 -10010 -9976
-10048 -10009 -9988
-10049 -10010 -9987
-9973 -10009 -10041
-9972 -10010 -10043
-9992 -10009 -9951
-9992 -10010 -9950
-10039 -10009 -10030
-10040 -10009 -10032
-9951 -10009 -10004
-9949 -10009 -10004
-10034 -10009 -9964
-10035 -10009 -9963
-9999 -10009 -10049
-9999 -10009 -10051
-9967 -10009 -9963
-9966 -10009 -9962
-10049 -10009 -10005
-10051 -10009 -10005
-9961 -10008 -10030
-9959 -10009 -10031
-10009 -10008 -9952
-10010 -10009 -9950
-10026 -10008 -10042
-10027 -10009 -10044
-9953 -10008 -9987
-9951 -10008 -9986
-10044 -10008 -9978
-10046 -10008 -9977
-9982 -10008 -10046
-9982 -10008 -10048
-9982 -10008 -9954
-9981 -10008 -9952
-10044 -10008 -10021
-10046 -10008 -10022
-9953 -10008 -10014
-9951 -10008 -10015
-10025 -10008 -9958
-10026 -10008 -9956
-10010 -10007 -10048
-10010 -10008 -10050
-9960 -10007 -9971
-9958 -10008 -9970
-10049 -10007 -9994
-10051 -10008 -9994
-9968 -10007 -10037
-9966 -10007 -10039
-9999 -10007 -9951
-9999 -10007 -9949
-10034 -10007 -10036
-10036 -10007 -10037
-9951 -10007 -9997
-9949 -10007 -9997
-10038 -10007 -9969
-10040 -10007 -9967
-9993 -10007 -10049
-9993 -10007 -10051
-9972 -10007 -9959
-9971 -10007 -9957
-10048 -10006 -10011
-10050 -10007 -10012
-9957 -10006 -10024
-9955 -10007 -10025
-10016 -10006 -9953
-10016 -10006 -9951
-10020 -10006 -10045
-10021 -10006 -10047
-9954 -10006 -9980
-9953 -10006 -9979
-10047 -10006 -9984
-10049 -10006 -9983
-9976 -10006 -10044
-9975 -10006 -10045
-9988 -10006 -9952
-9987 -10006 -9950
-10041 -10006 -10027
-10043 -10006 -10028
-9951 -10006 -10008
-9949 -10006 -10008
-10031 -10005 -9961
-10032 -10006 -9960
-10003 -10005 -10050
-10004 -10006 -10052
-9964 -10005 -9966
-9962 -10005 -9964
-10050 -10005 -10001
-10052 -10005 -10001
-9963 -10005 -10033
-9961 -10005 -10034
-10005 -10005 -9951
-10005 -10005 -9949
-10030 -10005 -10040
-10031 -10005 -10042
-9951 -10005 -9990
-9949 -10005 -9990
-10042 -10005 -9974
-10044 -10005 -9973
-9986 -10005 -10048
-9986 -10005 -10050
-9978 -10004 -9955
-9977 -10005 -9954
-10046 -10004 -10018
-10048 -10005 -10019
-9954 -10004 -10018
-9952 -10004 -10019
-10022 -10004 -9955
-10023 -10004 -9953
-10014 -10004 -10048
-10015 -10004 -10050
-9957 -10004 -9974
-9956 -10004 -9973
-10049 -10004 -9990
-10051 -10004 -9990
-9971 -10004 -10040
-9969 -10004 -10042
-9994 -10004 -9950
-9994 -10004 -9948
-10038 -10004 -10033
-10039 -10004 -10034
-9950 -10003 -10001
-9948 -10004 -10001
-10036 -10003 -9965
-10037 -10003 -9964
-9997 -10003 -10050
-9997 -10003 -10052
-9969 -10003 -9961
-9967 -10003 -9960
-10049 -10003 -10008
-10051 -10003 -10008
-9959 -10003 -10028
-9957 -10003 -10029
-10012 -10003 -9951
-10012 -10003 -9950
-10024 -10003 -10044
-10025 -10003 -10045
-9953 -10003 -9984
-9951 -10003 -9983
-10046 -10003 -9980
-10048 -10003 -9979
-9980 -10002 -10046
-9979 -10003 -10048
-9984 -10002 -9953
-9983 -10002 -9951
-10044 -10002 -10024
-10046 -10002 -10025
-9951 -10002 -10012
-9950 -10002 -10012
-10028 -10002 -9958
-10029 -10002 -9957
-10008 -10002 -10049
-10008 -10002 -10051
-9961 -10002 -9969
-9959 -10002 -9967
-10050 -10002 -9997
-10052 -10002 -9997
-9965 -10002 -10036
-9964 -10002 -10038
-10001 -10002 -9950
-10001 -10002 -9948
-10033 -10001 -10038
-10034 -10002 -10039
-9950 -10001 -9995
-9948 -10001 -9994
-10040 -10001 -9970
-10042 -10001 -9969
-9990 -10001 -10049
-9990 -10001 -10051
-9974 -10001 -9957
-9973 -10001 -9956
-10048 -10001 -10014
-10050 -10001 -10015
-9955 -10001 -10022
-9953 -10001 -10023
-10018 -10001 -9953
-10019 -10001 -9952
-10018 -10001 -10047
-10019 -10001 -10048
-9955 -10001 -9978
-9953 -10001 -9977
-10048 -10000 -9986
-10050 -10000 -9986
-9974 -10000 -10043
-9973 -10000 -10044
-9990 -10000 -9951
-9990 -10000 -9949
-10040 -10000 -10030
-10042 -10000 -10031
-9950 -10000 -10005
-9948 -10000 -10006
-10033 -10000 -9962
-10034 -10000 -9961
-10001 -10000 -10050
-10001 -10000 -10052
-9966 -10000 -9964
-9964 -10000 -9962
-10050 -10000 -10003
-10052 -10000 -10004
-9961 -10000 -10031
-9959 -10000 -10032
-10008 -9999 -9951
-10008 -9999 -9949
-10028 -9999 -10042
-10029 -9999 -10043
-9951 -9999 -9988
-9950 -9999 -9987
-10044 -9999 -9976
-10046 -9999 -9975
-9984 -9999 -10047
-9983 -9999 -10049
-9980 -9999 -9954
-9979 -9999 -9952
-10046 -9999 -10020
-10048 -9999 -10021
-9953 -9999 -10016
-9951 -9999 -10017
-10024 -9999 -9956
-10025 -9999 -9955
-10012 -9999 -10049
-10012 -9998 -10051
-9959 -9998 -9972
-9957 -9998 -9971
-10049 -9998 -9993
-10051 -9998 -9992
-9969 -9998 -10039
-9967 -9998 -10040
-9997 -9998 -9950
-9997 -9998 -9948
-10036 -9998 -10035
-10037 -9998 -10036
-9950 -9998 -9999
-9948 -9998 -9999
-10038 -9998 -9967
-10039 -9998 -9966
-9994 -9998 -10050
-9994 -9998 -10052
-9971 -9998 -9960
-9970 -9998 -9958
-10049 -9998 -10010
-10051 -9997 -10010
-9957 -9997 -10026
-9955 -9997 -10027
-10014 -9997 -9952
-10015 -9997 -9950
-10022 -9997 -10045
-10023 -9997 -10047
-9954 -9997 -9982
-9952 -9997 -9981
-10047 -9997 -9982
-10048 -9997 -9981
-9978 -9997 -10045
-9977 -9997 -10046
-9986 -9997 -9952
-9986 -9997 -9950
-10042 -9997 -10026
-10044 -9997 -10027
-9951 -9997 -10009
-9949 -9997 -10010
-10030 -9997 -9960
-10031 -9996 -9958
-10005 -9996 -10050
-10005 -9996 -10052
-9963 -9996 -9967
-9961 -9996 -9966
-10050 -9996 -9999
-10052 -9996 -9999
-9964 -9996 -10034
-9962 -9996 -10036
-10004 -9996 -9950
-10004 -9996 -9948
-10031 -9996 -10039
-10032 -9996 -10041
-9951 -9996 -9992
-9949 -9996 -9992
-10042 -9996 -9973
-10043 -9996 -9972
-9988 -9996 -10048
-9987 -9995 -10050
-9976 -9996 -9956
-9975 -9995 -9954
-10047 -9995 -10016
-10049 -9995 -10017
-9954 -9995 -10020
-9952 -9995 -10020
-10020 -9995 -9955
-10021 -9995 -9953
-10016 -9995 -10047
-10016 -9995 -10049
-9957 -9995 -9976
-9955 -9995 -9975
-10048 -9995 -9989
-10050 -9995 -9988
-9972 -9995 -10041
-9971 -9995 -10043
-9993 -9995 -9951
-9993 -9995 -9949
-10038 -9995 -10031
-10040 -9994 -10033
-9950 -9995 -10003
-9948 -9994 -10003
-10035 -9994 -9964
-10036 -9994 -9963
-9998 -9994 -10050
-9998 -9994 -10052
-9968 -9994 -9962
-9966 -9994 -9961
-10049 -9994 -10006
-10051 -9994 -10006
-9960 -9994 -10029
-9958 -9994 -10030
-10010 -9994 -9951
-10011 -9994 -9949
-10025 -9994 -10043
-10026 -9994 -10044
-9953 -9994 -9986
-9951 -9993 -9985
-10045 -9994 -9979
-10047 -9993 -9978
-9982 -9994 -10046
-9981 -9993 -10048
-9983 -9993 -9954
-9982 -9993 -9952
-10044 -9993 -10022
-10046 -9993 -10023
-9952 -9993 -10013
-9950 -9993 -10014
-10026 -9993 -9958
-10027 -9993 -9956
-10009 -9993 -10049
-10009 -9993 -10051
-9960 -9993 -9970
-9959 -9993 -9969
-10049 -9993 -9995
-10051 -9993 -9995
-9967 -9993 -10037
-9966 -9992 -10038
-10000 -9993 -9951
-10000 -9992 -9949
-10034 -9993 -10036
-10035 -9992 -10038
-9951 -9992 -9996
-9949 -9992 -9996
-10039 -9992 -9970
-10040 -9992 -9968
-9992 -9992 -10049
-9992 -9992 -10051
-9973 -9992 -9959
-9972 -9992 -9957
-10048 -9992 -10012
-10050 -9992 -10013
-9956 -9992 -10023
-9955 -9992 -10024
-10016 -9992 -9954
-10017 -9992 -9952
-10019 -9992 -10045
-10020 -9991 -10047
-9955 -9992 -9980
-9953 -9991 -9979
-10047 -9992 -9985
-10049 -9991 -9984
-9976 -9991 -10043
-9975 -9991 -10045
-9989 -9991 -9952
-9989 -9991 -9950
-10041 -9991 -10028
-10042 -9991 -10029
-9951 -9991 -10007
-9949 -9991 -10007
-10031 -9991 -9962
-10033 -9991 -9961
-10003 -9991 -10049
-10003 -9991 -10051
-9965 -9991 -9965
-9964 -9990 -9964
-10049 -9991 -10002
-10051 -9990 -10002
-9963 -9991 -10032
-9961 -9990 -10033
-10006 -9991 -9951
-10006 -9990 -9949
-10028 -9990 -10040
-10030 -9990 -10042
-9952 -9990 -9990
-9950 -9990 -9989
-10042 -9990 -9975
-10044 -9990 -9974
-9986 -9990 -10047
-9985 -9990 -10049
-9979 -9990 -9956
-9978 -9990 -9954
-10045 -9990 -10018
-10047 -9990 -10019
-9954 -9990 -10017
-9952 -9989 -10018
-10022 -9990 -9956
-10023 -9989 -9955
-10013 -9990 -10047
-10013 -9989 -10049
-9959 -9990 -9974
-9957 -9989 -9973
-10048 -9989 -9991
-10050 -9989 -9991
-9970 -9989 -10039
-9969 -9989 -10040
-9996 -9989 -9951
-9995 -9989 -9949
-10036 -9989 -10033
-10038 -9989 -10034
-9951 -9989 -10000
-9949 -9989 -10000
-10036 -9989 -9967
-10037 -9989 -9966
-9996 -9989 -10049
-9996 -9988 -10051
-9970 -9989 -9961
-9969 -9988 -9960
-10048 -9989 -10008
-10050 -9988 -10009
-9959 -9989 -10026
-9957 -9988 -10027
-10012 -9988 -9953
-10013 -9988 -9951
-10023 -9988 -10043
-10024 -9988 -10045
-9954 -9988 -9984
-9952 -9988 -9983
-10045 -9988 -9981
-10047 -9988 -9981
-9980 -9988 -10044
-9979 -9988 -10046
-9985 -9988 -9954
-9985 -9987 -9952
-10042 -9988 -10024
-10044 -9987 -10025
-9953 -9988 -10011
-9951 -9987 -10011
-10028 -9988 -9960
-10029 -9987 -9959
-10006 -9988 -10048
-10007 -9987 -10050
-9963 -9987 -9969
-9961 -9987 -9968
-10048 -9987 -9998
-10050 -9987 -9998
-9966 -9987 -10034
-9965 -9987 -10036
-10002 -9987 -9952
-10002 -9987 -9950
-10031 -9987 -10037
-10032 -9987 -10038
-9952 -9987 -9994
-9950 -9986 -9994
-10039 -9987 -9972
-10041 -9986 -9971
-9990 -9987 -10047
-9989 -9986 -10049
-9976 -9987 -9958
-9975 -9986 -9957
-10046 -9987 -10014
-10048 -9986 -10015
-9956 -9986 -10020
-9955 -9986 -10021
-10018 -9986 -9956
-10019 -9986 -9954
-10016 -9986 -10045
-10017 -9986 -10047
-9957 -9986 -9978
-9956 -9986 -9977
-10046 -9986 -9988
-10048 -9985 -9987
-9974 -9986 -10040
-9973 -9985 -10042
-9992 -9986 -9953
-9991 -9985 -9951
-10038 -9986 -10029
-10040 -9985 -10030
-9952 -9986 -10004
-9950 -9985 -10004
-10032 -9986 -9965
-10034 -9985 -9963
-10000 -9985 -10048
-10000 -9985 -10050
-9968 -9985 -9965
-9966 -9985 -9963
-10048 -9985 -10004
-10049 -9985 -10004
-9962 -9985 -10029
-9961 -9985 -10030
-10008 -9985 -9953
-10009 -9984 -9951
-10026 -9985 -10040
-10027 -9984 -10042
-9954 -9985 -9988
-9952 -9984 -9987
-10042 -9985 -9978
-10044 -9984 -9977
-9984 -9985 -10045
-9983 -9984 -10046
-9982 -9985 -9956
-9981 -9984 -9954
-10043 -9984 -10020
-10045 -9984 -10021
-9955 -9984 -10014
-9953 -9984 -10015
-10024 -9984 -9959
-10025 -9984 -9957
-10010 -9984 -10046
-10011 -9984 -10048
-9961 -9984 -9973
-9960 -9983 -9972
-10047 -9984 -9994
-10049 -9983 -9994
-9969 -9984 -10036
-9968 -9983 -10038
-9998 -9984 -9953
-9998 -9983 -9951
-10033 -9984 -10034
-10035 -9983 -10035
-9953 -9984 -9998
-9951 -9983 -9998
-10036 -9983 -9970
-10038 -9983 -9969
-9994 -9983 -10047
-9993 -9983 -10049
-9973 -9983 -9961
-9972 -9983 -9960
-10046 -9983 -10010
-10048 -9982 -10011
-9959 -9983 -10023
-9958 -9982 -10024
-10014 -9983 -9955
-10015 -9982 -9953
-10020 -9983 -10043
-10020 -9982 -10044
-9957 -9983 -9982
-9955 -9982 -9981
-10044 -9983 -9984
-10046 -9982 -9984
-9978 -9983 -10041
-9977 -9982 -10043
-9988 -9982 -9955
-9988 -9982 -9953
-10039 -9982 -10025
-10041 -9982 -10026
-9954 -9982 -10008
-9952 -9982 -10008
-10029 -9982 -9963
-10030 -9981 -9962
-10004 -9982 -10047
-10004 -9981 -10048
-9966 -9982 -9968
-9964 -9981 -9967
-10047 -9982 -10000
-10048 -9981 -10000
-9966 -9982 -10031
-9964 -9981 -10033
-10004 -9982 -9954
-10004 -9981 -9952
-10028 -9982 -10037
-10029 -9981 -10039
-9954 -9981 -9992
-9952 -9981 -9991
-10039 -9981 -9975
-10041 -9981 -9974
-9988 -9981 -10045
-9987 -9980 -10046
-9979 -9981 -9959
-9978 -9980 -9957
-10043 -9981 -10016
-10045 -9980 -10017
-9957 -9981 -10017
-9955 -9980 -10018
-10020 -9981 -9958
-10021 -9980 -9957
-10014 -9981 -10044
-10014 -9980 -10046
-9960 -9981 -9977
-9959 -9980 -9976
-10045 -9981 -9990
-10047 -9980 -9990
-9973 -9980 -10038
-9972 -9980 -10039
-9994 -9980 -9954
-9994 -9980 -9953
-10035 -9980 -10030
-10036 -9979 -10031
-9954 -9980 -10002
-9952 -9979 -10002
-10033 -9980 -9968
-10034 -9979 -9967
-9998 -9980 -10046
-9998 -9979 -10048
-9971 -9980 -9965
-9970 -9979 -9963
-10045 -9980 -10006
-10047 -9979 -10007
-9962 -9980 -10026
-9961 -9979 -10027
-10010 -9980 -9956
-10011 -9979 -9954
-10022 -9979 -10040
-10023 -9979 -10041
-9957 -9979 -9986
-9955 -9979 -9985
-10041 -9979 -9981
-10043 -9978 -9980
-9982 -9979 -10042
-9982 -9978 -10044
-9985 -9979 -9957
-9984 -9978 -9955
-10040 -9979 -10021
-10042 -9978 -10022
-9956 -9979 -10011
-9954 -9978 -10012
-10025 -9979 -9962
-10026 -9978 -9961
-10007 -9979 -10045
-10008 -9978 -10046
-9964 -9979 -9972
-9963 -9978 -9971
-10045 -9978 -9997
-10047 -9978 -9996
-9969 -9978 -10033
-9968 -9977 -10034
-10000 -9978 -9955
-10000 -9977 -9953
-10030 -9978 -10033
-10031 -9977 -10035
-9955 -9978 -9996
-9954 -9977 -9995
-10036 -9978 -9973
-10037 -9977 -9972
-9992 -9978 -10044
-9991 -9977 -10046
-9976 -9978 -9962
-9975 -9977 -9960
-10043 -9978 -10012
-10045 -9977 -10013
-9960 -9978 -10020
-9959 -9977 -10021
-10016 -9977 -9958
-10016 -9977 -9957
-10017 -9977 -10041
-10017 -9976 -10043
-9960 -9977 -9981
-9958 -9976 -9980
-10043 -9977 -9987
-10044 -9976 -9987
-9977 -9977 -10038
-9976 -9976 -10040
-9991 -9977 -9957
-9991 -9976 -9955
-10036 -9977 -10026
-10037 -9976 -10027
-9956 -9977 -10005
-9954 -9976 -10005
-10029 -9977 -9966
-10030 -9976 -9965
-10001 -9977 -10044
-10001 -9976 -10046
-9969 -9976 -9968
-9968 -9976 -9967
-10044 -9976 -10002
-10046 -9975 -10003
-9966 -9976 -10028
-9965 -9975 -10029
-10006 -9976 -9957
-10007 -9975 -9955
-10025 -9976 -10036
-10026 -9975 -10038
-9957 -9976 -9990
-9956 -9975 -9990
-10038 -9976 -9979
-10040 -9975 -9978
-9986 -9976 -10042
-9986 -9975 -10043
-9982 -9976 -9960
-9981 -9975 -9959
-10040 -9976 -10017
-10042 -9975 -10018
-9959 -9975 -10014
-9957 -9974 -10015
-10021 -9975 -9962
-10021 -9974 -9960
-10011 -9975 -10042
-10011 -9974 -10044
-9964 -9975 -9976
-9962 -9974 -9975
-10043 -9975 -9993
-10044 -9974 -9993
-9973 -9975 -10034
-9972 -9974 -10035
-9997 -9975 -9957
-9997 -9974 -9955
-10031 -9975 -10030
-10033 -9974 -10031
-9957 -9975 -9999
-9955 -9974 -9999
-10032 -9975 -9971
-10033 -9974 -9970
-9996 -9974 -10043
-9995 -9973 -10044
-9974 -9974 -9966
-9973 -9973 -9964
-10042 -9974 -10008
-10044 -9973 -10008
-9964 -9974 -10022
-9962 -9973 -10023
-10012 -9974 -9959
-10012 -9973 -9957
-10019 -9974 -10038
-10020 -9973 -10040
-9960 -9974 -9985
-9959 -9973 -9984
-10040 -9974 -9984
-10041 -9973 -9984
-9981 -9974 -10038
-9981 -9973 -10040
-9988 -9974 -9959
-9987 -9972 -9958
-10036 -9973 -10022
-10038 -9972 -10023
-9959 -9973 -10008
-9957 -9972 -10009
-10025 -9973 -9966
-10026 -9972 -9964
-10005 -9973 -10042
-10005 -9972 -10044
-9968 -9973 -9972
-9967 -9972 -9971
-10042 -9973 -9999
-10044 -9972 -9999
-9970 -9973 -10029
-9969 -9972 -10030
-10003 -9973 -9958
-10003 -9972 -9956
-10026 -9973 -10033
-10027 -9972 -10034
-9959 -9973 -9994
-9957 -9971 -9994
-10035 -9972 -9977
-10036 -9971 -9976
-9990 -9972 -10041
-9990 -9971 -10042
-9980 -9972 -9964
-9979 -9971 -9962
-10039 -9972 -10013
-10041 -9971 -10014
-9962 -9972 -10017
-9961 -9971 -10018
-10017 -9972 -9962
-10017 -9971 -9961
-10013 -9972 -10039
-10014 -9971 -10041
-9964 -9972 -9980
-9962 -9971 -9979
-10040 -9972 -9990
-10042 -9971 -9990
-9977 -9972 -10034
-9976 -9970 -10036
-9994 -9971 -9959
-9993 -9970 -9958
-10032 -9971 -10026
-10033 -9970 -10027
-9959 -9971 -10003
-9958 -9970 -10003
-10028 -9971 -9970
-10029 -9970 -9969
-9999 -9971 -10041
-9999 -9970 -10042
-9973 -9971 -9969
-9972 -9970 -9968
-10040 -9971 -10004
-10042 -9970 -10005
-9967 -9971 -10024
-9966 -9970 -10025
-10008 -9971 -9960
-10008 -9969 -9959
-10021 -9971 -10035
-10022 -9969 -10036
-9961 -9970 -9989
-9960 -9969 -9988
-10036 -9970 -9982
-10038 -9969 -9981
-9985 -9970 -10037
-9985 -9969 -10039
-9985 -9970 -9963
-9985 -9969 -9961
-10036 -9970 -10018
-10037 -9969 -10018
-9962 -9970 -10011
-9960 -9969 -10012
-10021 -9970 -9966
-10022 -9969 -9965
-10008 -9970 -10039
-10008 -9969 -10041
-9968 -9970 -9977
-9967 -9968 -9976
-10039 -9970 -9996
-10041 -9968 -9996
-9974 -9969 -10030
-9973 -9968 -10031
-9999 -9969 -9961
-9999 -9968 -9959
-10027 -9969 -10028
-10028 -9968 -10030
-9961 -9969 -9997
-9959 -9968 -9997
-10031 -9969 -9975
-10032 -9968 -9974
-9994 -9969 -10039
-9994 -9968 -10040
-9978 -9969 -9967
-9977 -9968 -9966
-10038 -9969 -10009
-10039 -9967 -10010
-9966 -9969 -10019
-9964 -9967 -10019
-10013 -9969 -9963
-10013 -9967 -9962
-10016 -9968 -10036
-10016 -9967 -10037
-9965 -9968 -9984
-9963 -9967 -9984
-10037 -9968 -9988
-10038 -9967 -9987
-9981 -9968 -10034
-9981 -9967 -10035
-9991 -9968 -9963
-9991 -9967 -9961
-10032 -9968 -10021
-10033 -9967 -10022
-9962 -9968 -10006
-9961 -9967 -10006
-10024 -9968 -9970
-10025 -9966 -9969
-10002 -9968 -10038
-10002 -9966 -10040
-9973 -9968 -9974
-9971 -9966 -9973
-10038 -9967 -10001
-10039 -9966 -10001
-9971 -9967 -10025
-9970 -9966 -10026
-10004 -9967 -9962
-10004 -9966 -9961
-10022 -9967 -10030
-10023 -9966 -10032
-9963 -9967 -9993
-9962 -9966 -9992
-10032 -9967 -9981
-10033 -9966 -9980
-9989 -9967 -10036
-9989 -9966 -10037
-9984 -9967 -9966
-9983 -9965 -9965
-10035 -9967 -10014
-10036 -9965 -10014
-9965 -9967 -10013
-9964 -9965 -10014
-10017 -9966 -9967
-10017 -9965 -9965
-10010 -9966 -10036
-10011 -9965 -10037
-9969 -9966 -9981
-9967 -9965 -9980
-10036 -9966 -9993
-10038 -9965 -9993
-9978 -9966 -10030
-9977 -9965 -10031
-9996 -9966 -9964
-9996 -9965 -9962
-10027 -9966 -10024
-10028 -9964 -10025
-9964 -9966 -10001
-9962 -9964 -10001
-10026 -9966 -9975
-10027 -9964 -9974
-9997 -9966 -10036
-9997 -9964 -10038
-9978 -9965 -9972
-9977 -9964 -9971
-10036 -9965 -10006
-10037 -9964 -10006
-9970 -9965 -10020
-9969 -9964 -10021
-10009 -9965 -9965
-10009 -9964 -9964
-10017 -9965 -10031
-10018 -9964 -10033
-9966 -9965 -9988
-9965 -9964 -9988
-10033 -9965 -9986
-10034 -9963 -9985
-9986 -9965 -10032
-9985 -9963 -10034
-9989 -9965 -9966
-9988 -9963 -9965
-10031 -9965 -10017
-10032 -9963 -10018
-9966 -9964 -10008
-9964 -9963 -10008
-10020 -9964 -9971
-10020 -9963 -9970
-10005 -9964 -10035
-10005 -9963 -10036
-9973 -9964 -9978
-9972 -9963 -9977
-10035 -9964 -9998
-10036 -9963 -9998
-9976 -9964 -10025
-9975 -9963 -10026
-10001 -9964 -9965
-10001 -9962 -9964
-10023 -9964 -10026
-10023 -9962 -10027
-9966 -9964 -9996
-9965 -9962 -9996
-10028 -9964 -9980
-10029 -9962 -9979
-9993 -9963 -10033
-9993 -9962 -10035
-9983 -9963 -9971
-9982 -9962 -9970
-10032 -9963 -10010
-10034 -9962 -10010
-9970 -9963 -10015
-9968 -9962 -10015
-10012 -9963 -9969
-10013 -9962 -9967
-10012 -9963 -10031
-10012 -9961 -10033
-9970 -9963 -9985
-9969 -9961 -9984
-10032 -9963 -9991
-10033 -9961 -9991
-9982 -9963 -10028
-9982 -9961 -10029
-9994 -9963 -9967
-9994 -9961 -9966
-10026 -9962 -10020
-10027 -9961 -10021
-9967 -9962 -10003
-9966 -9961 -10003
-10022 -9962 -9976
-10023 -9961 -9975
-10000 -9962 -10033
-10000 -9961 -10034
-9978 -9962 -9976
-9977 -9961 -9975
-10032 -9962 -10002
-10034 -9960 -10003
-9975 -9962 -10020
-9974 -9960 -10021
-10005 -9962 -9968
-10005 -9960 -9967
-10018 -9962 -10027
-10018 -9960 -10028
-9969 -9962 -9992
-9968 -9960 -9992
-10028 -9961 -9985
-10029 -9960 -9984
-9989 -9961 -10030
-9989 -9960 -10031
-9988 -9961 -9971
-9987 -9960 -9970
-10029 -9961 -10013
-10030 -9960 -10014
-9970 -9961 -10010
-9969 -9959 -10010
-10015 -9961 -9973
-10016 -9959 -9972
-10007 -9961 -10030
-10007 -9959 -10032
-9974 -9961 -9982
-9973 -9959 -9982
-10031 -9961 -9996
-10032 -9959 -9996
-9980 -9961 -10024
-9980 -9959 -10025
-9998 -9960 -9969
-9998 -9959 -9968
-10022 -9960 -10021
-10023 -9959 -10022
-9970 -9960 -9999
-9968 -9959 -9999
-10023 -9960 -9980
-10024 -9959 -9980
-9996 -9960 -10030
-9996 -9958 -10031
-9983 -9960 -9976
-9982 -9958 -9975
-10029 -9960 -10006
-10030 -9958 -10006
-9974 -9960 -10015
-9973 -9958 -10016
-10009 -9960 -9972
-10009 -9958 -9971
-10013 -9960 -10027
-10013 -9958 -10028
-9973 -9959 -9989
-9972 -9958 -9989
-10027 -9959 -9990
-10028 -9958 -9989
-9987 -9959 -10026
-9986 -9958 -10027
-9992 -9959 -9972
-9992 -9958 -9971
-10024 -9959 -10015
-10025 -9957 -10016
-9972 -9959 -10005
-9971 -9957 -10005
-10017 -9959 -9977
-10018 -9957 -9976
-10003 -9959 -10028
-10003 -9957 -10029
-9979 -9959 -9981
-9978 -9957 -9980
-10028 -9959 -10000
-10029 -9957 -10000
-9980 -9958 -10019
-9979 -9957 -10020
-10002 -9958 -9972
-10002 -9957 -9971
-10017 -9958 -10022
-10018 -9957 -10023
-9973 -9958 -9995
-9972 -9956 -9995
-10023 -9958 -9985
-10024 -9956 -9985
-9993 -9958 -10026
-9993 -9956 -10027
-9987 -9958 -9976
-9987 -9956 -9975
-10025 -9958 -10009
-10026 -9956 -10009
-9976 -9958 -10010
-9975 -9956 -10011
-10011 -9958 -9976
-10011 -9956 -9975
-10008 -9957 -10025
-10008 -9956 -10026
-9977 -9957 -9987
-9976 -9956 -9987
-10025 -9957 -9994
-10026 -9956 -9994
-9985 -9957 -10021
-9985 -9955 -10022
-9997 -9957 -9975
-9996 -9955 -9974
-10020 -9957 -10016
-10020 -9955 -10017
-9975 -9957 -10001
-9974 -9955 -10001
-10018 -9957 -9982
-10018 -9955 -9981
-9999 -9957 -10025
-9999 -9955 -10026
-9984 -9957 -9981
-9983 -9955 -9980
-10024 -9956 -10003
-10025 -9955 -10003
-9980 -9956 -10014
-9979 -9955 -10015
-10005 -9956 -9976
-10005 -9954 -9975
-10012 -9956 -10021
-10013 -9954 -10022
-9977 -9956 -9993
-9976 -9954 -9993
-10021 -9956 -9990
-10022 -9954 -9990
-9991 -9956 -10022
-9991 -9954 -10023
-9992 -9956 -9978
-9992 -9954 -9977
-10021 -9956 -10011
-10021 -9954 -10011
-9978 -9956 -10006
-9977 -9954 -10006
-10012 -9955 -9981
-10013 -9954 -9980
-10004 -9955 -10022
-10004 -9954 -10023
-9982 -9955 -9986
-9982 -9953 -9986
-10022 -9955 -9998
-10023 -9953 -9998
-9985 -9955 -10016
-9985 -9953 -10017
-10000 -9955 -9978
-10000 -9953 -9977
-10015 -9955 -10016
-10015 -9953 -10016
-9979 -9955 -9998
-9978 -9953 -9998
-10017 -9955 -9987
-10017 -9953 -9987
-9996 -9955 -10021
-9996 -9953 -10021
-9989 -9954 -9983
-9988 -9953 -9982
-10020 -9954 -10005
-10020 -9953 -10005
-9982 -9954 -10009
-9981 -9952 -10010
-10007 -9954 -9981
-10007 -9952 -9981
-10008 -9954 -10018
-10008 -9952 -10019
-9982 -9954 -9992
-9982 -9952 -9991
-10018 -9954 -9994
-10019 -9952 -9994
-9991 -9954 -10016
-9990 -9952 -10017
-9996 -9954 -9982
-9996 -9952 -9981
-10015 -9954 -10011
-10016 -9952 -10011
-9982 -9953 -10002
-9981 -9952 -10002
-10012 -9953 -9986
-10012 -9951 -9986
-10001 -9953 -10018
-10001 -9951 -10018
-9988 -9953 -9988
-9987 -9951 -9987
-10017 -9953 -10001
-10018 -9951 -10001
-9987 -9953 -10011
-9987 -9951 -10011
-10002 -9953 -9984
-10002 -9951 -9983
-10009 -9953 -10013
-10010 -9951 -10014
-9984 -9953 -9997
-9984 -9951 -9996
-10014 -9953 -9992
-10014 -9951 -9992
-9995 -9952 -10015
-9995 -9951 -10015
-9994 -9952 -9986
-9993 -9950 -9986
-10014 -9952 -10006
-10014 -9950 -10006
-9986 -9952 -10005
-9986 -9950 -10005
-10007 -9952 -9987
-10007 -9950 -9987
-10004 -9952 -10013
-10004 -9950 -10014
-9989 -9952 -9993
-9988 -9950 -9992
-10013 -9952 -9998
-10013 -9950 -9998
-9992 -9952 -10010
-9992 -9950 -10010
-9999 -9952 -9988
-9999 -9950 -9987
-10009 -9951 -10008
-10009 -9950 -10008
-9988 -9951 -10000
-9988 -9949 -10000
-10008 -9951 -9993
-10009 -9949 -9992
-9999 -9951 -10011
-9999 -9949 -10011
-9994 -9951 -9992
-9994 -9949 -9992
-10010 -9951 -10002
-10010 -9949 -10002
-9992 -9951 -10005
-9992 -9949 -10005
-10002 -9951 -9992
-10002 -9949 -9991
-10004 -9951 -10007
-10004 -9949 -10007
-9993 -9951 -9997
-9993 -9949 -9997
-10006 -9950 -9997
-10006 -9948 -9997
-9997 -9950 -10005
-9997 -9948 -10006
-9999 -9950 -9995
-9998 -9948 -9995
-10003 -9950 -10002
-10003 -9948 -10002
-9998 -9950 -10000
-9998 -9948 -10000
